-0.693599998950958 0.715200006961823 0.0205000583082438
-3.51040005683899 0.757800042629242 0.10950019210577
-8.48519992828369 2.94720005989075 0.184700578451157
-14.1803998947144 4.42980003356934 0.278500974178314
-21.2756004333496 8.7810001373291 0.376501560211182
-27.6639995574951 12.411600112915 0.466902107000351
-35.4659996032715 17.4834003448486 0.572502791881561
-42.5475997924805 23.2620010375977 0.659503400325775
-50.2005996704102 29.7182998657227 0.617503464221954
-59.2623977661133 36.1958999633789 0.583003461360931
-68.3241958618164 42.6735000610352 0.548503518104553
-74.5683975219727 49.1085014343262 0.499003559350967
-81.5063934326172 56.2584991455078 0.444003611803055
-86.2781982421875 66.8983001708984 0.331503719091415
-92.4375915527344 78.9681015014648 0.208003848791122
-100.63599395752 96.0002975463867 0.031004011631012
-109.485794067383 116.564895629883 -0.18849578499794
-118.293190002441 139.946899414063 -0.444995522499084
-128.832382202148 168.586898803711 -1.07059490680695
-139.560592651367 202.536392211914 -1.4479945898056
-150.113586425781 240.756393432617 -1.88149416446686
-160.432983398438 284.670379638672 -2.38979363441467
-169.777786254883 334.960876464844 -2.98589301109314
-177.582183837891 388.039886474609 -3.62669253349304
-182.480987548828 442.425384521484 -4.30079174041748
-182.797775268555 495.946990966797 -4.68239116668701
-181.004180908203 549.0595703125 -4.4049916267395
-175.598571777344 605.548645019531 -4.15559196472168
-166.675384521484 662.618896484375 -3.94879221916199
-153.512176513672 720.945434570313 -3.79019236564636
-134.130569458008 776.963562011719 -3.7257924079895
-111.325775146484 830.767333984375 -3.71859240531921
-84.1505737304688 885.113342285156 -4.62039136886597
-53.5617790222168 937.187377929688 -5.56959056854248
-23.0385780334473 987.856323242188 -6.50738954544067
7.95742082595825 1033.57495117188 -7.41818857192993
35.1462211608887 1073.13549804688 -8.21318817138672
62.2038192749023 1109.88610839844 -8.98538684844971
86.1238174438477 1139.74328613281 -9.64898681640625
107.707015991211 1164.78173828125 -10.2339859008789
124.505012512207 1185.03588867188 -10.3331861495972
137.477615356445 1200.55859375 -10.4104862213135
146.624816894531 1211.34948730469 -10.4658861160278
150.619018554688 1218.9052734375 -10.4735860824585
153.696212768555 1222.97302246094 -10.4896860122681
154.52880859375 1225.04907226563 -10.4883861541748
153.865020751953 1225.79724121094 -10.4754858016968
154.613220214844 1226.46118164063 -10.4812860488892
151.781219482422 1226.54028320313 -10.406886100769
148.221206665039 1225.93115234375 -10.3212852478027
143.893218994141 1223.21716308594 -10.2392854690552
137.381210327148 1218.43798828125 -10.1236848831177
130.101211547852 1211.55395507813 -10.0116844177246
119.909210205078 1201.91638183594 -9.85488414764404
106.765213012695 1188.10876464844 -9.66808414459229
89.9412155151367 1169.44274902344 -9.44008350372314
70.9332122802734 1148.71154785156 -9.17848300933838
51.0772132873535 1123.04272460938 -8.95008277893066
28.2692127227783 1093.20397949219 -8.69168186187744
3.96521234512329 1060.57189941406 -8.42568206787109
-19.690788269043 1025.79553222656 -8.20048141479492
-46.2187881469727 989.681945800781 -7.91568040847778
-72.0187911987305 954.256713867188 -7.64207983016968
-97.8187866210938 918.83154296875 -7.36847925186157
-122.329986572266 882.560607910156 -7.73797845840454
-143.958786010742 850.473999023438 -8.06597709655762
-165.587585449219 818.387451171875 -8.39397621154785
-185.764389038086 789.097351074219 -8.68447589874268
-203.08039855957 762.582824707031 -8.96697521209717
-220.331588745117 740.29443359375 -9.14897441864014
-233.291595458984 722.16943359375 -9.31897354125977
-244.105987548828 706.126098632813 -9.48297309875488
-254.877197265625 692.900207519531 -9.57997226715088
-262.765991210938 683.858642578125 -9.63547229766846
-268.530792236328 675.490051269531 -9.71847152709961
-274.252380371094 669.938842773438 -9.73447132110596
-278.543609619141 665.775451660156 -9.7464714050293
-280.689208984375 663.693725585938 -9.75247097015381
-282.119598388672 662.305908203125 -9.75647163391113
-283.575592041016 660.929138183594 -9.73407077789307
-286.407592773438 661.00830078125 -9.65967082977295
-289.927581787109 661.815551757813 -9.55927085876465
-297.655609130859 664.157897949219 -9.33247089385986
-306.622009277344 667.958312988281 -9.19397068023682
-318.520385742188 673.253295898438 -9.19397068023682
-329.730590820313 677.8203125 -9.19397068023682
-340.212799072266 683.075500488281 -9.19397068023682
-352.111206054688 688.370544433594 -9.19397068023682
-364.009582519531 693.66552734375 -9.19397068023682
-375.868194580078 700.376708984375 -9.19397068023682
-388.454803466797 706.399719238281 -9.19397068023682
-404.075592041016 713.929504394531 -8.95076942443848
-424.359588623047 723.397521972656 -8.32826805114746
-448.860595703125 731.150695800781 -7.60066652297974
-482.498992919922 742.921936035156 -6.62466430664063
-524.568603515625 756.227233886719 -5.43816184997559
-572.945373535156 771.739624023438 -4.06865882873535
-629.75341796875 788.7861328125 -2.48865532875061
-692.174987792969 807.324951171875 -0.757151544094086
-758.801391601563 827.335144042969 1.09635257720947
-826.815002441406 848.77490234375 3.01285672187805
-893.419799804688 870.19384765625 4.89986085891724
-957.369018554688 889.84912109375 5.84016561508179
-1017.05462646484 908.099426269531 6.71726989746094
-1065.37377929688 923.549560546875 7.43097352981567
-1104.45837402344 936.901916503906 8.01287651062012
-1136.43542480469 947.439453125 8.48687839508057
-1160.59741210938 955.874328613281 8.847580909729
-1179.0810546875 964.328857421875 9.13428211212158
-1191.16918945313 970.675842285156 9.3261833190918
-1199.701171875 974.905517578125 9.46028327941895
-1206.09655761719 977.013061523438 9.55508422851563
-1208.94055175781 978.422912597656 9.59978485107422
-1209.65283203125 979.13037109375 9.61288452148438
-1210.34643554688 979.845153808594 9.64438438415527
-1208.916015625 981.232971191406 9.64838409423828
-1206.74877929688 984.723327636719 9.68788433074951
-1202.45764160156 988.88671875 9.69988441467285
-1196.73596191406 994.437927246094 9.7158842086792
-1188.89038085938 1000.66217041016 9.70438385009766
-1178.9423828125 1006.15063476563 9.6318826675415
-1168.97277832031 1013.0478515625 9.59288215637207
-1156.20715332031 1018.49456787109 9.46138191223145
-1140.58081054688 1026.716796875 9.33788108825684
-1121.48645019531 1031.36511230469 9.05687999725342
-1100.24633789063 1038.09509277344 8.78187847137451
-1079.04956054688 1042.00769042969 8.4398775100708
-1055.75036621094 1045.18469238281 8.03687572479248
-1033.88159179688 1046.97375488281 7.62987470626831
-1012.03442382813 1047.35412597656 7.18937349319458
-986.025573730469 1043.44580078125 6.55987215042114
-959.323181152344 1038.82250976563 5.89887046813965
-927.050415039063 1029.8896484375 5.01936864852905
-896.901611328125 1020.28375244141 4.16736650466919
-864.021606445313 1005.00122070313 3.12236452102661
-836.104797363281 987.678833007813 2.13036274909973
-805.435180664063 966.088562011719 0.97886073589325
-777.561584472656 945.94873046875 -0.0801411271095276
-752.527160644531 924.442016601563 -1.11364281177521
-726.647216796875 902.685241699219 -2.31924486160278
-705.664794921875 884.438842773438 -3.31924653053284
-686.783203125 866.896423339844 -4.26084804534912
-673.391967773438 853.816833496094 -5.05694913864136
-662.605590820313 842.004821777344 -5.96354961395264
-655.384765625 832.248840332031 -6.6727499961853
-651.770202636719 827.375244140625 -7.11715030670166
-649.614990234375 825.296813964844 -7.31455039978027
-648.896606445313 824.604064941406 -7.3803505897522
-648.178161621094 823.911254882813 -7.44615030288696
-646.763977050781 823.935241699219 -7.46235036849976
-643.919982910156 822.525329589844 -7.50705099105835
-628.982971191406 813.348754882813 -7.75135183334351
-601.24560546875 797.117736816406 -8.20065402984619
-564.268798828125 777.369323730469 -8.78945732116699